ply
format ascii 1.0
comment Mean Depth: 20.21
comment Std Depth: 12.40
comment Min Depth: -0.27
comment Max Depth: 49.78
comment Anomalies Detected: Yes
element vertex 782
property float x
property float y
property float z
property float red
property float green
property float blue
property float anomaly
end_header
9.096910 7.883988 -25.269192 0.866667 0.650980 0.588235 0.0
9.415068 7.982340 -25.584423 0.603922 0.501961 0.400000 0.0
9.740969 8.082932 -25.906832 0.968627 0.835294 0.788235 0.0
10.071688 8.183246 -26.228354 0.894118 0.803922 0.568627 0.0
10.409375 8.285012 -26.554529 1.000000 0.988235 0.784314 0.0
10.752378 8.386854 -26.880945 0.529412 0.403922 0.309804 0.0
11.097894 8.486625 -27.200720 0.411765 0.372549 0.235294 0.0
11.445868 8.584400 -27.514103 0.823529 0.713725 0.572549 0.0
11.796677 8.680573 -27.822351 1.000000 0.992157 0.952941 0.0
12.154794 8.778461 -28.136097 0.733333 0.627451 0.423529 0.0
12.528724 8.884004 -28.474373 1.000000 0.988235 1.000000 0.0
12.904957 8.987381 -28.805708 0.858824 0.850980 0.803922 0.0
13.278915 9.085573 -29.120428 0.886275 0.862745 0.835294 0.0
13.655369 9.182058 -29.429674 0.560784 0.501961 0.454902 0.0
14.027884 9.272669 -29.720093 0.800000 0.729412 0.576471 0.0
14.399559 9.359713 -29.999081 0.898039 0.741176 0.666667 0.0
14.778512 9.448557 -30.283836 0.984314 0.862745 0.776471 0.0
15.164676 9.539070 -30.573942 0.862745 0.686275 0.584314 0.0
15.553883 9.628593 -30.860878 0.984314 0.976471 0.847059 0.0
15.950211 9.719660 -31.152756 0.701961 0.631373 0.494118 0.0
16.350401 9.810240 -31.443079 0.600000 0.333333 0.403922 0.0
16.744518 9.894487 -31.713100 0.670588 0.525490 0.478431 0.0
17.135990 9.974681 -31.970131 0.674510 0.611765 0.611765 0.0
17.536709 10.057819 -32.236599 0.815686 0.600000 0.650980 0.0
17.938856 10.139353 -32.497925 0.874510 0.764706 0.611765 0.0
18.345076 10.220828 -32.759064 0.949020 0.803922 0.698039 0.0
18.760178 10.304886 -33.028481 0.733333 0.529412 0.474510 0.0
19.181749 10.390115 -33.301651 1.000000 0.945098 0.886275 0.0
19.607159 10.475058 -33.573902 0.898039 0.670588 0.682353 0.0
20.039997 10.561621 -33.851349 0.627451 0.474510 0.462745 0.0
20.472385 10.645639 -34.120640 0.949020 0.815686 0.831373 0.0
20.904722 10.727423 -34.382767 0.878431 0.717647 0.694118 0.0
21.340185 10.808665 -34.643158 0.827451 0.749020 0.509804 0.0
21.774599 10.887300 -34.895191 0.823529 0.745098 0.654902 0.0
22.214174 10.966491 -35.149010 0.984314 0.890196 0.901961 0.0
22.659828 11.046667 -35.405983 0.784314 0.572549 0.596078 0.0
23.110952 11.127496 -35.665051 0.905882 0.725490 0.658824 0.0
23.564455 11.207484 -35.921425 1.000000 0.933333 0.878431 0.0
24.020332 11.286662 -36.175198 0.815686 0.709804 0.654902 0.0
24.480110 11.365765 -36.428734 0.917647 0.870588 0.776471 0.0
24.944181 11.444978 -36.682621 1.000000 0.921569 0.909804 0.0
25.408634 11.522520 -36.931156 0.937255 0.870588 0.756863 0.0
25.876545 11.599830 -37.178944 0.850980 0.705882 0.690196 0.0
26.354324 11.679758 -37.435120 1.000000 0.894118 0.843137 0.0
26.841173 11.761863 -37.698277 1.000000 0.964706 0.870588 0.0
27.327723 11.842012 -37.955170 0.725490 0.611765 0.501961 0.0
27.815746 11.921034 -38.208443 0.988235 0.854902 0.811765 0.0
28.312988 12.002245 -38.468735 1.000000 0.925490 0.819608 0.0
28.811953 12.082432 -38.725742 1.000000 0.850980 0.760784 0.0
29.316978 12.163427 -38.985344 0.815686 0.725490 0.596078 0.0
29.826691 12.244641 -39.245647 0.870588 0.721569 0.658824 0.0
30.348070 12.328903 -39.515717 0.878431 0.772549 0.717647 0.0
30.879948 12.415649 -39.793747 0.972549 0.929412 0.886275 0.0
31.414371 12.501637 -40.069351 0.898039 0.729412 0.631373 0.0
31.937366 12.581387 -40.324959 1.000000 0.992157 0.929412 0.0
32.469284 12.663020 -40.586605 1.000000 1.000000 0.913725 0.0
33.004642 12.744367 -40.847328 0.843137 0.776471 0.717647 0.0
33.535213 12.822289 -41.097076 0.925490 0.811765 0.670588 0.0
34.081078 12.904486 -41.360531 0.850980 0.721569 0.572549 0.0
34.633125 12.987423 -41.626354 0.992157 0.898039 0.862745 0.0
35.192623 13.071546 -41.895981 0.886275 0.850980 0.733333 0.0
35.761726 13.157617 -42.171848 0.984314 0.898039 0.745098 0.0
36.337337 13.244450 -42.450157 0.925490 0.749020 0.792157 0.0
36.914696 13.330307 -42.725342 0.800000 0.662745 0.674510 0.0
37.490868 13.414163 -42.994114 0.713725 0.639216 0.545098 0.0
38.077187 13.500093 -43.269531 0.823529 0.682353 0.643137 0.0
38.672894 13.587773 -43.550556 0.572549 0.450980 0.396078 0.0
39.276897 13.676776 -43.835823 0.713725 0.596078 0.533333 0.0
39.899860 13.770748 -44.137012 0.941176 0.874510 0.811765 0.0
40.529415 13.865326 -44.440147 0.866667 0.662745 0.611765 0.0
41.169674 13.961890 -44.749649 0.658824 0.466667 0.396078 0.0
41.805077 14.055157 -45.048576 0.796078 0.623529 0.584314 1.0
42.438465 14.146155 -45.340240 0.964706 0.898039 0.839216 1.0
43.075710 14.236888 -45.631050 0.556863 0.454902 0.352941 1.0
43.706848 14.324093 -45.910553 0.976471 0.874510 0.847059 1.0
44.370422 14.420386 -46.219189 1.000000 0.937255 0.776471 1.0
45.027016 14.512839 -46.515511 0.482353 0.403922 0.254902 1.0
45.703102 14.610009 -46.826950 0.835294 0.713725 0.670588 1.0
46.382614 14.706682 -47.136803 0.800000 0.576471 0.631373 1.0
47.057472 14.800335 -47.436970 0.815686 0.717647 0.647059 1.0
47.750370 14.898115 -47.750370 0.647059 0.525490 0.466667 1.0
48.418491 14.986676 -48.034218 0.988235 0.976471 0.964706 1.0
48.962444 15.035712 -48.191383 0.509804 0.470588 0.286275 1.0
-7.767467 2.305967 -7.585417 1.000000 1.000000 0.949020 0.0
-7.782623 2.328659 -7.660062 1.000000 0.980392 0.945098 0.0
-7.831853 2.361988 -7.769696 1.000000 0.921569 0.870588 0.0
-7.876663 2.394505 -7.876663 1.000000 1.000000 0.964706 0.0
-7.914308 2.425353 -7.978133 1.000000 0.996078 0.968627 0.0
-7.943128 2.453975 -8.072285 1.000000 0.933333 0.941176 0.0
-7.967041 2.481537 -8.162951 1.000000 1.000000 1.000000 0.0
-7.980815 2.506372 -8.244644 1.000000 1.000000 0.964706 0.0
-7.982266 2.527718 -8.314860 1.000000 0.996078 0.960784 0.0
-7.995135 2.553068 -8.398251 1.000000 0.886275 0.870588 0.0
-7.996758 2.575227 -8.471142 1.000000 0.878431 0.874510 0.0
-8.003008 2.599267 -8.550222 1.000000 0.992157 0.937255 0.0
-8.005054 2.622345 -8.626135 1.000000 0.925490 0.886275 0.0
-8.003970 2.644790 -8.699967 1.000000 1.000000 0.996078 0.0
-7.997745 2.665915 -8.769457 1.000000 0.913725 0.796078 0.0
-7.979486 2.683367 -8.826865 1.000000 1.000000 1.000000 0.0
-7.960876 2.701012 -8.884907 1.000000 0.874510 0.815686 0.0
-7.970246 2.728553 -8.975502 1.000000 1.000000 1.000000 0.0
-7.927846 2.738710 -9.008916 1.000000 0.992157 0.913725 0.0
-7.887056 2.749616 -9.044789 1.000000 0.984314 0.972549 0.0
-7.848361 2.761461 -9.083752 1.000000 0.870588 0.803922 0.0
-7.770998 2.759794 -9.078269 1.000000 0.984314 0.890196 0.0
-7.663628 2.747338 -9.037296 1.000000 0.921569 0.631373 0.0
-9.721467 3.518245 -11.573174 0.792157 0.180392 0.211765 0.0
-10.423078 3.808432 -12.527737 0.929412 0.615686 0.541176 0.0
-10.420791 3.844564 -12.646591 0.694118 0.164706 0.172549 0.0
-10.372318 3.864197 -12.711175 0.529412 0.031373 0.098039 0.0
-10.317497 3.881830 -12.769179 0.541176 0.011765 0.035294 0.0
-10.275575 3.904718 -12.844467 0.572549 0.039216 0.027451 0.0
-10.234186 3.928273 -12.921952 0.447059 0.000000 0.023529 0.0
-10.188030 3.950461 -12.994937 0.596078 0.003922 0.047059 0.0
-10.143480 3.973735 -13.071496 0.450980 0.000000 0.000000 0.0
-10.098453 3.997304 -13.149026 0.470588 0.000000 0.078431 0.0
-10.045437 4.018174 -13.217679 0.396078 0.000000 0.000000 0.0
-9.990821 4.038843 -13.285666 0.470588 0.000000 0.000000 0.0
-9.933029 4.058657 -13.350846 0.419608 0.000000 0.000000 0.0
-9.871942 4.077541 -13.412964 0.501961 0.000000 0.000000 0.0
-9.814054 4.098176 -13.480843 0.211765 0.000000 0.000000 0.0
-9.754498 4.118566 -13.547913 0.913725 0.219608 0.290196 0.0
-9.689102 4.136920 -13.608291 0.423529 0.023529 0.035294 0.0
-9.620146 4.154154 -13.664980 0.898039 0.000000 0.247059 0.0
-9.545068 4.169110 -13.714177 0.298039 0.003922 0.000000 0.0
-9.454884 4.177739 -13.742563 0.619608 0.000000 0.090196 0.0
-9.368605 4.188317 -13.777359 0.611765 0.000000 0.098039 0.0
-9.282533 4.199241 -13.813292 0.439216 0.000000 0.000000 0.0
-9.185923 4.205604 -13.834222 0.584314 0.000000 0.000000 0.0
-9.085186 4.210208 -13.849368 0.290196 0.000000 0.000000 0.0
-8.981486 4.213537 -13.860318 0.439216 0.000000 0.000000 0.0
-8.878416 4.217247 -13.872524 0.466667 0.000000 0.000000 0.0
-8.768913 4.217958 -13.874862 0.290196 0.000000 0.000000 0.0
-8.660281 4.219111 -13.878656 0.282353 0.000000 0.000000 0.0
-8.548978 4.218976 -13.878211 0.145098 0.000000 0.000000 0.0
-8.431025 4.215512 -13.866817 0.415686 0.000000 0.000000 0.0
-8.309004 4.209895 -13.848339 0.356863 0.003922 0.003922 0.0
-8.184427 4.202814 -13.825047 0.254902 0.000000 0.000000 0.0
-8.057594 4.194364 -13.797251 0.568627 0.000000 0.000000 0.0
-7.932319 4.186502 -13.771388 0.376471 0.000000 0.000000 0.0
-7.815701 4.183051 -13.760036 0.494118 0.000000 0.000000 0.0
-7.691755 4.175524 -13.735277 0.235294 0.000000 0.000000 0.0
-7.579863 4.174417 -13.731636 0.533333 0.000000 0.000000 0.0
-7.473985 4.176639 -13.738944 0.654902 0.000000 0.000000 0.0
-7.360595 4.174666 -13.732453 0.278431 0.000000 0.000000 0.0
-7.242854 4.170128 -13.717525 0.098039 0.000000 0.000000 0.0
-7.113558 4.158695 -13.679919 0.215686 0.000000 0.000000 0.0
-6.987944 4.149092 -13.648329 0.454902 0.000000 0.000000 0.0
-6.984325 4.212768 -13.857788 0.270588 0.000000 0.000000 0.0
-7.173865 4.396885 -14.463438 0.956863 1.000000 1.000000 0.0
-7.150609 4.454477 -14.652887 1.000000 0.000000 0.000000 0.0
-7.081896 4.485201 -14.753950 1.000000 0.250980 0.235294 0.0
-6.995008 4.505259 -14.819931 0.843137 0.000000 0.000000 0.0
-6.898293 4.519571 -14.867009 0.980392 0.968627 0.976471 0.0
-6.790855 4.527237 -14.892226 1.000000 0.384314 0.192157 0.0
-6.671925 4.527378 -14.892689 1.000000 1.000000 1.000000 0.0
-6.543269 4.520804 -14.871066 1.000000 1.000000 1.000000 0.0
-6.404085 4.506578 -14.824271 0.192157 0.168627 0.486275 0.0
-6.260705 4.488807 -14.765813 0.666667 0.615686 0.843137 0.0
-6.114157 4.468038 -14.697493 0.725490 0.650980 0.870588 0.0
-5.966544 4.445660 -14.623881 0.564706 0.466667 0.819608 0.0
-5.821500 4.424340 -14.553750 0.698039 0.223529 0.086275 0.0
-5.674134 4.400349 -14.474832 0.733333 0.462745 0.470588 0.0
-5.525228 4.374139 -14.388615 0.925490 0.729412 0.666667 0.0
-5.375517 4.346163 -14.296589 0.592157 0.415686 0.474510 0.0
-5.222215 4.314003 -14.190801 0.968627 0.662745 0.917647 0.0
-5.056911 4.270280 -14.046975 0.623529 0.254902 0.294118 0.0
-4.879088 4.213758 -13.861046 0.250980 0.043137 0.047059 0.0
-4.697813 4.151555 -13.656431 0.298039 0.019608 0.019608 0.0
-4.518633 4.088287 -13.448314 0.454902 0.000000 0.000000 0.0
-4.351159 4.032782 -13.265729 0.149020 0.000000 0.000000 0.0
-4.194533 3.984806 -13.107915 0.215686 0.007843 0.007843 0.0
-4.044338 3.940637 -12.962622 0.101961 0.000000 0.000000 0.0
-3.887777 3.887777 -12.788741 0.203922 0.007843 0.007843 0.0
-3.719485 3.820011 -12.565827 0.490196 0.000000 0.000000 0.0
-3.549606 3.746806 -12.325021 0.294118 0.003922 0.003922 0.0
-3.403270 3.694979 -12.154535 0.145098 0.007843 0.007843 0.0
-3.273393 3.658498 -12.034533 0.129412 0.003922 0.003922 0.0
-3.155551 3.633665 -11.952846 0.141176 0.000000 0.000000 0.0
-3.044636 3.615505 -11.893109 0.141176 0.000000 0.000000 0.0
-2.936276 3.599306 -11.839821 0.184314 0.007843 0.007843 0.0
-2.828525 3.582798 -11.785521 0.172549 0.000000 0.000000 0.0
-2.722751 3.567742 -11.735994 0.094118 0.000000 0.000000 0.0
-2.618570 3.553774 -11.690046 0.176471 0.000000 0.000000 0.0
-2.516550 3.541810 -11.650692 0.121569 0.000000 0.000000 0.0
-2.417321 3.533008 -11.621737 0.352941 0.000000 0.000000 0.0
-2.318443 3.524033 -11.592213 0.250980 0.000000 0.000000 0.0
-2.221212 3.516919 -11.568811 0.137255 0.007843 0.007843 0.0
-2.123083 3.507702 -11.538495 0.160784 0.000000 0.000000 0.0
-2.014119 3.478933 -11.443860 0.313725 0.000000 0.000000 0.0
-1.904787 3.446758 -11.338020 0.964706 0.894118 0.568627 0.0
-1.812579 3.443900 -11.328620 0.427451 0.058824 0.000000 0.0
-0.345404 0.690808 -2.272394 0.941176 0.647059 0.098039 0.0
-0.036159 0.076336 -0.251104 0.827451 0.682353 0.317647 0.0
-0.032353 0.072318 -0.237889 0.847059 0.717647 0.364706 0.0
-0.048372 0.114884 -0.377906 0.847059 0.729412 0.388235 0.0
-0.058019 0.146981 -0.483490 0.850980 0.733333 0.400000 0.0
-0.058275 0.158174 -0.520310 0.854902 0.737255 0.403922 0.0
-0.061432 0.179571 -0.590693 0.870588 0.752941 0.415686 0.0
-0.061279 0.194050 -0.638322 0.400000 0.274510 0.168627 0.0
-0.059916 0.206983 -0.680864 0.137255 0.003922 0.007843 0.0
-0.058186 0.221106 -0.727323 0.137255 0.007843 0.007843 0.0
-0.055416 0.233979 -0.769668 0.137255 0.007843 0.007843 0.0
-0.052700 0.250326 -0.823441 0.137255 0.003922 0.003922 0.0
-0.049486 0.268639 -0.883682 0.133333 0.003922 0.003922 0.0
-0.045298 0.286890 -0.943717 0.086275 0.000000 0.000000 0.0
-0.039823 0.302656 -0.995580 0.133333 0.007843 0.007843 0.0
-0.033843 0.321508 -1.057592 0.137255 0.003922 0.003922 0.0
-0.026967 0.341578 -1.123612 0.152941 0.003922 0.003922 0.0
-0.019121 0.363299 -1.195061 0.129412 0.007843 0.000000 0.0
-0.010030 0.381155 -1.253798 0.105882 0.003922 0.000000 0.0
0.000000 0.203042 -0.667900 0.607843 0.101961 0.000000 0.0
0.086743 3.296234 -10.842875 0.949020 0.909804 0.905882 0.0
0.184056 3.497069 -11.503515 0.992157 0.988235 0.984314 0.0
0.283557 3.591717 -11.814858 1.000000 1.000000 0.960784 0.0
0.387526 3.681500 -12.110198 1.000000 1.000000 1.000000 0.0
0.497053 3.777603 -12.426326 1.000000 0.850980 0.803922 0.0
0.612190 3.877202 -12.753953 1.000000 0.964706 0.941176 0.0
0.732707 3.977550 -13.084047 1.000000 0.784314 0.650980 0.0
0.858653 4.078604 -13.416460 1.000000 0.705882 0.607843 0.0
0.990310 4.181309 -13.754304 1.000000 0.968627 0.788235 0.0
1.127268 4.283618 -14.090849 0.988235 0.768627 0.560784 0.0
1.269176 4.384425 -14.422452 0.956863 0.733333 0.647059 0.0
1.416814 4.486578 -14.758482 1.000000 0.996078 0.898039 0.0
1.568594 4.585121 -15.082634 1.000000 0.980392 0.956863 0.0
1.724809 4.681624 -15.400079 1.000000 0.976471 0.827451 0.0
1.886029 4.777939 -15.716907 1.000000 0.964706 0.784314 0.0
2.051994 4.873485 -16.031200 1.000000 0.835294 0.811765 0.0
2.223106 4.969297 -16.346371 1.000000 0.937255 0.886275 0.0
2.400256 5.067207 -16.668446 1.000000 0.929412 0.858824 0.0
2.582034 5.164067 -16.987064 1.000000 0.921569 0.823529 0.0
2.767412 5.258082 -17.296324 1.000000 1.000000 0.984314 0.0
2.956802 5.350403 -17.600010 1.000000 0.952941 0.733333 0.0
3.152562 5.445334 -17.912283 1.000000 1.000000 1.000000 0.0
3.354705 5.542556 -18.232092 1.000000 1.000000 1.000000 0.0
3.560546 5.637531 -18.544510 1.000000 0.886275 0.666667 0.0
3.772163 5.733687 -18.860813 1.000000 0.984314 0.898039 0.0
3.988921 5.829961 -19.177504 1.000000 0.988235 0.768627 0.0
4.210763 5.926260 -19.494276 1.000000 0.952941 0.933333 0.0
4.438481 6.023654 -19.814650 1.000000 1.000000 0.901961 0.0
4.671478 6.121247 -20.135681 1.000000 0.647059 0.549020 0.0
4.910361 6.219790 -20.459837 1.000000 0.796078 0.650980 0.0
5.155630 6.319804 -20.788830 1.000000 1.000000 0.964706 0.0
5.406814 6.420591 -21.120365 1.000000 0.925490 0.807843 0.0
5.662648 6.520625 -21.449425 1.000000 0.725490 0.619608 0.0
5.923036 6.619864 -21.775866 1.000000 0.901961 0.898039 0.0
6.185958 6.716184 -22.092709 1.000000 0.905882 0.827451 0.0
6.454908 6.813514 -22.412874 1.000000 1.000000 0.925490 0.0
6.728890 6.910752 -22.732738 0.929412 0.745098 0.564706 0.0
7.005433 7.005433 -23.044186 0.984314 0.870588 0.800000 0.0
7.287416 7.100560 -23.357103 0.972549 0.909804 0.768627 0.0
7.575914 7.197119 -23.674732 0.952941 0.901961 0.835294 0.0
7.869912 7.294065 -23.993633 0.905882 0.737255 0.662745 0.0
8.167482 7.389627 -24.307981 0.521569 0.439216 0.380392 0.0
8.469932 7.485056 -24.621895 0.764706 0.611765 0.572549 0.0
8.777294 7.580390 -24.935493 0.866667 0.674510 0.607843 0.0
9.089158 7.675289 -25.247662 0.854902 0.850980 0.513725 0.0
9.407715 7.771590 -25.564442 1.000000 0.992157 0.901961 0.0
9.733149 7.869353 -25.886032 0.937255 0.913725 0.890196 0.0
10.064142 7.967447 -26.208706 1.000000 0.898039 0.886275 0.0
10.401851 8.066741 -26.535334 0.890196 0.780392 0.784314 0.0
10.744390 8.165737 -26.860977 0.874510 0.831373 0.752941 0.0
11.089597 8.262836 -27.180384 0.952941 0.929412 0.929412 0.0
11.438161 8.358656 -27.495579 0.733333 0.713725 0.513725 0.0
11.789581 8.452908 -27.805616 0.933333 0.717647 0.647059 0.0
12.147495 8.548237 -28.119202 0.811765 0.694118 0.631373 0.0
12.521326 8.651097 -28.457560 0.905882 0.694118 0.647059 0.0
12.896998 8.751534 -28.787943 0.917647 0.917647 0.890196 0.0
13.270421 8.846948 -29.101801 0.878431 0.854902 0.831373 0.0
13.648207 8.941929 -29.414240 0.529412 0.439216 0.352941 0.0
14.021605 9.030865 -29.706789 0.968627 0.862745 0.784314 0.0
14.393399 9.115819 -29.986248 0.937255 0.764706 0.619608 0.0
14.772430 9.202498 -30.271374 0.835294 0.658824 0.678431 0.0
15.158225 9.290524 -30.560936 0.741176 0.701961 0.525490 0.0
15.547334 9.377757 -30.847885 0.639216 0.380392 0.341176 0.0
15.942679 9.465966 -31.138046 0.980392 0.870588 0.870588 0.0
16.341591 9.553546 -31.426138 0.960784 0.945098 0.800000 0.0
16.735014 9.635311 -31.695103 0.952941 0.776471 0.721569 0.0
17.126364 9.713460 -31.952171 0.592157 0.400000 0.356863 0.0
17.527271 9.794652 -32.219250 0.854902 0.760784 0.670588 0.0
17.929193 9.874049 -32.480423 0.905882 0.894118 0.780392 0.0
18.334803 9.953178 -32.740719 0.890196 0.686275 0.635294 0.0
18.749897 10.035155 -33.010380 1.000000 0.952941 0.823529 0.0
19.171459 10.118270 -33.283783 0.996078 0.858824 0.827451 0.0
19.596680 10.201011 -33.555958 0.882353 0.815686 0.682353 0.0
20.029425 10.285378 -33.833485 1.000000 0.933333 0.874510 0.0
20.461998 10.367413 -34.103329 0.878431 0.796078 0.674510 0.0
20.894859 10.447430 -34.366547 0.886275 0.717647 0.690196 0.0
21.330076 10.526531 -34.626747 0.850980 0.674510 0.611765 0.0
21.764383 10.603161 -34.878819 1.000000 0.941176 0.909804 0.0
22.205055 10.680912 -35.134579 0.976471 0.898039 0.898039 0.0
22.652248 10.759818 -35.394138 0.894118 0.803922 0.603922 0.0
23.104336 10.839071 -35.654839 0.811765 0.772549 0.741176 0.0
23.558540 10.917373 -35.912411 0.949020 0.760784 0.717647 0.0
24.015064 10.994849 -36.167267 0.890196 0.827451 0.678431 0.0
24.475859 11.072412 -36.422409 1.000000 1.000000 0.850980 0.0
24.940670 11.149946 -36.677456 0.811765 0.615686 0.615686 0.0
25.405405 11.225643 -36.926460 0.901961 0.725490 0.752941 0.0
25.874403 11.301463 -37.175865 0.992157 1.000000 0.901961 0.0
26.353527 11.379931 -37.433987 0.980392 0.898039 0.701961 0.0
26.841080 11.460237 -37.698147 0.850980 0.792157 0.717647 0.0
27.328638 11.538759 -37.956444 0.933333 0.886275 0.678431 0.0
27.817690 11.616179 -38.211113 0.921569 0.827451 0.741176 0.0
28.316383 11.695897 -38.473347 0.972549 0.866667 0.792157 0.0
28.815720 11.774164 -38.730804 0.921569 0.803922 0.725490 0.0
29.320374 11.852916 -38.989857 0.980392 0.788235 0.784314 0.0
29.830948 11.932379 -39.251247 0.984314 0.815686 0.756863 0.0
30.352518 12.014538 -39.521507 0.964706 0.866667 0.721569 0.0
30.884409 12.099047 -39.799496 0.937255 0.823529 0.666667 0.0
31.418762 12.182785 -40.074951 1.000000 0.929412 0.772549 0.0
31.940168 12.259862 -40.328495 0.898039 0.760784 0.635294 0.0
32.471527 12.339181 -40.589409 0.956863 0.949020 0.882353 0.0
33.006451 12.418268 -40.849567 1.000000 0.941176 0.929412 0.0
33.535778 12.493721 -41.097767 0.811765 0.721569 0.592157 0.0
34.081394 12.573719 -41.360916 0.952941 0.792157 0.760784 0.0
34.631805 12.653930 -41.624767 0.988235 0.858824 0.792157 0.0
35.189037 12.735080 -41.891712 0.674510 0.576471 0.427451 0.0
35.756420 12.818340 -42.165592 0.890196 0.866667 0.772549 0.0
36.331341 12.902719 -42.443153 0.984314 0.925490 0.901961 0.0
36.908791 12.986425 -42.718506 0.788235 0.666667 0.588235 0.0
37.482952 13.067452 -42.985039 0.980392 0.839216 0.776471 0.0
38.067444 13.150572 -43.258461 0.803922 0.686275 0.674510 0.0
38.663578 13.236179 -43.540066 0.956863 0.815686 0.780392 0.0
39.267883 13.323032 -43.825764 0.854902 0.788235 0.552941 0.0
39.890839 13.414618 -44.127033 0.917647 0.827451 0.772549 0.0
40.520367 13.506790 -44.430229 0.952941 0.870588 0.760784 0.0
41.160557 13.600881 -44.739738 0.733333 0.560784 0.541176 0.0
41.797375 13.692245 -45.040276 1.000000 0.898039 0.882353 1.0
42.431713 13.781240 -45.333027 0.960784 0.772549 0.647059 1.0
43.067486 13.869189 -45.622334 0.647059 0.490196 0.490196 1.0
43.697037 13.953675 -45.900246 1.000000 0.890196 0.737255 1.0
44.359165 14.047069 -46.207462 0.905882 0.909804 0.807843 1.0
45.016769 14.137498 -46.504929 0.870588 0.654902 0.600000 1.0
45.693588 14.232430 -46.817204 0.847059 0.823529 0.654902 1.0
46.371864 14.326266 -47.125877 0.431373 0.266667 0.290196 1.0
47.045017 14.417022 -47.424412 0.815686 0.827451 0.698039 1.0
47.737488 14.512197 -47.737488 0.827451 0.658824 0.666667 1.0
48.407509 14.599090 -48.023323 0.984314 0.976471 0.968627 1.0
48.952583 14.647229 -48.181675 0.721569 0.572549 0.466667 1.0
-7.758158 2.242593 -7.576326 1.000000 1.000000 0.956863 0.0
-7.777071 2.265761 -7.654598 1.000000 0.996078 0.921569 0.0
-7.825310 2.297909 -7.763205 1.000000 0.780392 0.737255 0.0
-7.870456 2.329655 -7.870456 1.000000 1.000000 0.976471 0.0
-7.907957 2.359632 -7.971730 1.000000 1.000000 0.988235 0.0
-7.936797 2.387492 -8.065850 1.000000 0.921569 0.937255 0.0
-7.958496 2.413642 -8.154197 1.000000 0.925490 0.862745 0.0
-7.971903 2.437690 -8.235437 1.000000 0.996078 0.956863 0.0
-7.974836 2.458908 -8.307121 1.000000 1.000000 0.929412 0.0
-7.987331 2.483456 -8.390054 1.000000 1.000000 0.941176 0.0
-7.990101 2.505371 -8.464090 1.000000 1.000000 1.000000 0.0
-7.998797 2.529534 -8.545723 1.000000 0.996078 0.878431 0.0
-8.002104 2.552395 -8.622956 1.000000 1.000000 1.000000 0.0
-8.001077 2.574260 -8.696823 1.000000 1.000000 1.000000 0.0
-7.995991 2.595190 -8.767534 1.000000 0.980392 0.925490 0.0
-7.974774 2.611209 -8.821653 1.000000 0.996078 0.960784 0.0
-7.957543 2.628831 -8.881186 1.000000 0.984314 0.984314 0.0
-7.964226 2.654742 -8.968722 1.000000 0.874510 0.725490 0.0
-7.913103 2.661680 -8.992163 1.000000 1.000000 0.988235 0.0
-7.885416 2.676701 -9.042908 1.000000 0.992157 0.831373 0.0
-7.851531 2.689877 -9.087420 1.000000 0.909804 0.827451 0.0
-7.770625 2.687038 -9.077832 1.000000 1.000000 0.984314 0.0
-7.661773 2.674392 -9.035110 1.000000 0.792157 0.552941 0.0
-9.861425 3.474979 -11.739793 1.000000 0.572549 0.313725 0.0
-10.396884 3.698891 -12.496255 0.964706 0.713725 0.686275 0.0
-10.412751 3.740503 -12.636833 0.611765 0.000000 0.007843 0.0
-10.370250 3.761758 -12.708640 0.752941 0.098039 0.239216 0.0
-10.316890 3.779455 -12.768428 0.603922 0.019608 0.035294 0.0
-10.274381 3.801521 -12.842976 0.635294 0.082353 0.101961 0.0
-10.231822 3.824014 -12.918967 0.737255 0.000000 0.188235 0.0
-10.184951 3.845339 -12.991010 0.552941 0.000000 0.133333 0.0
-10.139296 3.867566 -13.066103 0.545098 0.054902 0.011765 0.0
-10.094182 3.890466 -13.143466 0.341176 0.000000 0.027451 0.0
-10.039515 3.910127 -13.209889 0.596078 0.000000 0.000000 0.0
-9.982358 3.929226 -13.274412 0.235294 0.000000 0.000000 0.0
-9.922704 3.947742 -13.336967 0.431373 0.000000 0.000000 0.0
-9.860022 3.965444 -13.396769 0.654902 0.000000 0.000000 0.0
-9.800774 3.984930 -13.462601 0.631373 0.086275 0.086275 0.0
-9.740509 4.004431 -13.528484 0.796078 0.043137 0.035294 0.0
-9.675747 4.022501 -13.589532 0.776471 0.058824 0.117647 0.0
-9.607051 4.039328 -13.646379 0.988235 0.274510 0.423529 0.0
-9.531980 4.053830 -13.695373 0.639216 0.156863 0.094118 0.0
-9.441973 4.062244 -13.723797 0.564706 0.039216 0.125490 0.0
-9.355565 4.072423 -13.758184 0.517647 0.000000 0.098039 0.0
-9.269897 4.083169 -13.794489 0.305882 0.000000 0.000000 0.0
-9.173788 4.089520 -13.815946 0.494118 0.000000 0.000000 0.0
-9.072422 4.093654 -13.829911 0.494118 0.000000 0.000000 0.0
-8.967978 4.096483 -13.839471 0.423529 0.000000 0.000000 0.0
-8.865103 4.100110 -13.851723 0.333333 0.000000 0.000000 0.0
-8.755909 4.100869 -13.854286 0.415686 0.000000 0.000000 0.0
-8.646877 4.101724 -13.857175 0.396078 0.000000 0.000000 0.0
-8.535145 4.101303 -13.855755 0.266667 0.000000 0.000000 0.0
-8.417272 4.097882 -13.844197 0.286275 0.007843 0.007843 0.0
-8.294945 4.092173 -13.824907 0.286275 0.000000 0.000000 0.0
-8.171088 4.085544 -13.802514 0.784314 0.000000 0.000000 0.0
-8.045554 4.077884 -13.776633 0.749020 0.043137 0.047059 0.0
-7.920777 4.070399 -13.751348 0.698039 0.000000 0.000000 0.0
-7.804559 4.067164 -13.740420 0.415686 0.000000 0.000000 0.0
-7.681371 4.060153 -13.716733 0.219608 0.000000 0.000000 0.0
-7.571355 4.060002 -13.716223 0.462745 0.000000 0.000000 0.0
-7.462565 4.060513 -13.717951 0.352941 0.000000 0.000000 0.0
-7.349482 4.058669 -13.711720 0.470588 0.000000 0.000000 0.0
-7.231809 4.054196 -13.696608 0.345098 0.000000 0.000000 0.0
-7.103048 4.043273 -13.659708 0.188235 0.000000 0.000000 0.0
-6.976295 4.033171 -13.625577 0.345098 0.007843 0.007843 0.0
-6.971231 4.094214 -13.831806 0.670588 0.000000 0.000000 0.0
-7.155387 4.270150 -14.426183 0.894118 0.741176 0.733333 0.0
-7.130727 4.325195 -14.612145 1.000000 1.000000 0.490196 0.0
-7.061570 4.354635 -14.711604 0.450980 0.000000 0.000000 0.0
-6.974850 4.374058 -14.777224 0.933333 0.184314 0.172549 0.0
-6.876684 4.386850 -14.820440 0.984314 0.086275 0.082353 0.0
-6.766613 4.392363 -14.839064 0.952941 0.788235 0.741176 0.0
-6.645648 4.390874 -14.834034 0.929412 0.505882 0.478431 0.0
-6.516543 4.383856 -14.810325 0.850980 0.807843 0.650980 0.0
-6.378537 4.370479 -14.765132 1.000000 1.000000 0.250980 0.0
-6.236945 4.354094 -14.709777 0.909804 0.905882 0.996078 0.0
-6.092643 4.335149 -14.645775 0.490196 0.364706 0.360784 0.0
-5.947451 4.314817 -14.577085 0.792157 0.588235 0.615686 0.0
-5.803997 4.294958 -14.509992 0.831373 0.615686 0.560784 0.0
-5.657830 4.272239 -14.433240 1.000000 0.890196 0.576471 0.0
-5.510489 4.247668 -14.350230 0.513725 0.435294 0.611765 0.0
-5.363173 4.222072 -14.263757 0.913725 0.890196 0.909804 0.0
-5.212390 4.192575 -14.164105 0.858824 0.607843 0.643137 0.0
-5.048815 4.151248 -14.024486 0.517647 0.388235 0.407843 0.0
-4.872797 4.097579 -13.843172 0.168627 0.023529 0.023529 0.0
-4.693577 4.038659 -13.644118 0.239216 0.023529 0.027451 0.0
-4.516691 3.978990 -13.442533 0.403922 0.000000 0.000000 0.0
-4.348984 3.924693 -13.259098 0.215686 0.000000 0.000000 0.0
-4.195063 3.880433 -13.109571 0.168627 0.000000 0.000000 0.0
-4.045204 3.837758 -12.965398 0.227451 0.000000 0.000000 0.0
-3.889622 3.787264 -12.794811 0.211765 0.003922 0.003922 0.0
-3.720496 3.720496 -12.569244 0.341176 0.000000 0.000000 0.0
-3.548489 3.647058 -12.321143 0.321569 0.003922 0.003922 0.0
-3.399957 3.594241 -12.142705 0.160784 0.000000 0.000000 0.0
-3.268755 3.557174 -12.017480 0.145098 0.003922 0.003922 0.0
-3.150559 3.532445 -11.933937 0.086275 0.000000 0.000000 0.0
-3.039632 3.514575 -11.873563 0.133333 0.000000 0.000000 0.0
-2.931164 3.498487 -11.819211 0.156863 0.000000 0.000000 0.0
-2.822855 3.481520 -11.761893 0.192157 0.000000 0.000000 0.0
-2.716634 3.466050 -11.709627 0.152941 0.000000 0.000000 0.0
-2.612236 3.451884 -11.661769 0.137255 0.000000 0.000000 0.0
-2.509979 3.439602 -11.620275 0.164706 0.003922 0.003922 0.0
-2.410478 3.430296 -11.588837 0.133333 0.000000 0.000000 0.0
-2.311548 3.421092 -11.557742 0.172549 0.000000 0.000000 0.0
-2.214580 3.414144 -11.534268 0.176471 0.000000 0.000000 0.0
-2.116829 3.405334 -11.504505 0.180392 0.000000 0.000000 0.0
-2.008461 3.377866 -11.411708 0.352941 0.000000 0.000000 0.0
-1.900862 3.349138 -11.314653 0.992157 0.713725 0.235294 0.0
-1.810128 3.348737 -11.313300 0.368627 0.078431 0.000000 0.0
-0.329804 0.642249 -2.169761 0.886275 0.780392 0.317647 0.0
-0.029773 0.061199 -0.206755 0.827451 0.674510 0.247059 0.0
-0.028214 0.061408 -0.207459 0.847059 0.694118 0.274510 0.0
-0.044989 0.104038 -0.351480 0.850980 0.705882 0.294118 0.0
-0.054976 0.135609 -0.458137 0.854902 0.717647 0.313725 0.0
-0.055215 0.145926 -0.492993 0.854902 0.729412 0.329412 0.0
-0.059517 0.169395 -0.572279 0.819608 0.698039 0.329412 0.0
-0.060791 0.187438 -0.633236 0.423529 0.301961 0.149020 0.0
-0.059980 0.201752 -0.681594 0.125490 0.007843 0.011765 0.0
-0.058715 0.217246 -0.733939 0.133333 0.011765 0.011765 0.0
-0.056263 0.231302 -0.781426 0.129412 0.007843 0.007843 0.0
-0.053749 0.248588 -0.839823 0.133333 0.011765 0.011765 0.0
-0.050589 0.267401 -0.903382 0.125490 0.003922 0.003922 0.0
-0.046302 0.285529 -0.964623 0.129412 0.007843 0.007843 0.0
-0.040819 0.302057 -1.020464 0.121569 0.007843 0.007843 0.0
-0.034782 0.321733 -1.086936 0.121569 0.000000 0.000000 0.0
-0.027837 0.343317 -1.159855 0.137255 0.011765 0.011765 0.0
-0.019758 0.365526 -1.234885 0.152941 0.011765 0.007843 0.0
-0.010438 0.386188 -1.304688 0.109804 0.000000 0.000000 0.0
0.000000 0.211413 -0.714234 0.611765 0.074510 0.000000 0.0
0.086028 3.183035 -10.753497 0.952941 0.913725 0.901961 0.0
0.183301 3.391062 -11.456290 0.992157 0.988235 0.984314 0.0
0.282475 3.483864 -11.769810 1.000000 1.000000 1.000000 0.0
0.386185 3.572212 -12.068283 1.000000 0.643137 0.560784 0.0
0.495459 3.666398 -12.386478 1.000000 0.823529 0.698039 0.0
0.610232 3.763099 -12.713172 1.000000 0.811765 0.721569 0.0
0.730410 3.860738 -13.043033 1.000000 0.913725 0.788235 0.0
0.856159 3.959735 -13.377481 1.000000 1.000000 1.000000 0.0
0.987670 4.060421 -13.717641 1.000000 0.945098 0.968627 0.0
1.124400 4.160279 -14.054996 1.000000 0.913725 0.901961 0.0
1.266213 4.259080 -14.388783 0.984314 0.568627 0.454902 0.0
1.413462 4.358173 -14.723558 1.000000 0.898039 0.898039 0.0
1.564999 4.454228 -15.048069 1.000000 1.000000 1.000000 0.0
1.721111 4.548650 -15.367060 1.000000 0.972549 0.858824 0.0
1.882378 4.643199 -15.686484 1.000000 1.000000 0.941176 0.0
2.048285 4.736660 -16.002230 1.000000 0.631373 0.525490 0.0
2.219119 4.829848 -16.317053 1.000000 0.929412 0.788235 0.0
2.395844 4.924790 -16.637806 1.000000 0.878431 0.749020 0.0
2.577184 5.018726 -16.955156 1.000000 0.796078 0.709804 0.0
2.762237 5.110139 -17.263983 1.000000 1.000000 0.921569 0.0
2.951379 5.200048 -17.567730 1.000000 0.980392 0.709804 0.0
3.146908 5.292526 -17.880157 1.000000 1.000000 1.000000 0.0
3.349132 5.387734 -18.201805 1.000000 1.000000 1.000000 0.0
3.555052 5.480705 -18.515896 1.000000 1.000000 0.866667 0.0
3.766230 5.574020 -18.831150 1.000000 0.992157 0.949020 0.0
3.982390 5.667247 -19.146105 1.000000 0.803922 0.686275 0.0
4.204001 5.761038 -19.462967 1.000000 0.988235 0.945098 0.0
4.432017 5.856594 -19.785791 1.000000 0.803922 0.737255 0.0
4.665549 5.952597 -20.110125 1.000000 0.796078 0.690196 0.0
4.904495 6.048877 -20.435396 1.000000 0.788235 0.721569 0.0
5.149520 6.146202 -20.764194 1.000000 0.964706 0.960784 0.0
5.400598 6.244442 -21.096087 0.780392 0.407843 0.305882 0.0
5.656147 6.341741 -21.424799 1.000000 1.000000 1.000000 0.0
5.916163 6.438177 -21.750599 0.996078 0.796078 0.682353 0.0
6.179088 6.532178 -22.068169 0.964706 0.854902 0.701961 0.0
6.448153 6.627267 -22.389418 0.968627 0.823529 0.737255 0.0
6.722035 6.722035 -22.709578 0.945098 0.882353 0.768627 0.0
6.998908 6.814725 -23.022722 0.843137 0.800000 0.752941 0.0
7.281220 6.907824 -23.337242 0.968627 0.800000 0.760784 0.0
7.569187 7.001498 -23.653708 0.819608 0.658824 0.650980 0.0
7.862410 7.095345 -23.970762 0.827451 0.631373 0.619608 0.0
8.159684 7.188293 -24.284775 0.917647 0.882353 0.741176 0.0
8.462277 7.281495 -24.599644 0.776471 0.725490 0.615686 0.0
8.769861 7.374656 -24.914379 0.945098 0.788235 0.772549 0.0
9.082192 7.467581 -25.228313 0.992157 0.929412 0.815686 0.0
9.401028 7.561696 -25.546270 0.741176 0.713725 0.564706 0.0
9.726522 7.657049 -25.868410 0.674510 0.545098 0.537255 0.0
10.057859 7.752934 -26.192343 0.611765 0.545098 0.329412 0.0
10.395752 7.849854 -26.519775 0.549020 0.423529 0.290196 0.0
10.737738 7.945926 -26.844343 0.592157 0.447059 0.341176 0.0
11.082293 8.040095 -27.162483 0.545098 0.372549 0.305882 0.0
11.431129 8.133688 -27.478676 0.984314 0.941176 0.898039 0.0
11.782919 8.225812 -27.789904 0.921569 0.647059 0.631373 0.0
12.140149 8.318251 -28.102198 0.988235 0.850980 0.713725 0.0
12.512760 8.417675 -28.438089 0.760784 0.509804 0.431373 0.0
12.886996 8.514623 -28.765617 0.933333 0.913725 0.901961 0.0
13.258768 8.606569 -29.076246 0.878431 0.843137 0.819608 0.0
13.636490 8.699141 -29.388988 0.505882 0.415686 0.431373 0.0
14.011271 8.786730 -29.684896 0.866667 0.733333 0.600000 0.0
14.384679 8.870552 -29.968081 0.709804 0.486275 0.447059 0.0
14.764803 8.955700 -30.255743 0.690196 0.592157 0.313725 0.0
15.151208 9.041851 -30.546791 1.000000 0.874510 0.721569 0.0
15.540860 9.127172 -30.835041 0.976471 0.819608 0.737255 0.0
15.935143 9.212505 -31.123327 0.835294 0.713725 0.674510 0.0
16.332376 9.296890 -31.408415 0.780392 0.564706 0.478431 0.0
16.725157 9.376224 -31.676432 0.815686 0.717647 0.654902 0.0
17.116432 9.452357 -31.933641 0.913725 0.839216 0.760784 0.0
17.517399 9.531526 -32.201099 1.000000 0.929412 0.749020 0.0
17.919546 9.609033 -32.462948 0.866667 0.760784 0.694118 0.0
18.324938 9.686038 -32.723103 0.862745 0.745098 0.580392 0.0
18.739895 9.765861 -32.992771 1.000000 0.862745 0.882353 0.0
19.161427 9.846844 -33.266365 0.949020 0.831373 0.650980 0.0
19.586056 9.927179 -33.537769 0.941176 0.807843 0.764706 0.0
20.018320 10.009160 -33.814732 0.854902 0.796078 0.733333 0.0
20.450500 10.088914 -34.084167 0.952941 0.815686 0.745098 0.0
20.883663 10.167048 -34.348133 0.831373 0.792157 0.690196 0.0
21.319016 10.244203 -34.608791 0.854902 0.717647 0.635294 0.0
21.753548 10.318991 -34.861454 0.905882 0.827451 0.741176 0.0
22.194635 10.394955 -35.118092 0.976471 0.835294 0.827451 0.0
22.642609 10.472207 -35.379078 0.811765 0.654902 0.607843 0.0
23.095751 10.549911 -35.641590 0.968627 0.909804 0.776471 0.0
23.550388 10.626394 -35.899982 0.839216 0.686275 0.619608 0.0
24.007849 10.702294 -36.156399 0.858824 0.796078 0.647059 0.0
24.470449 10.778650 -36.414360 0.952941 0.784314 0.764706 0.0
24.936163 10.854565 -36.670826 1.000000 0.984314 0.992157 0.0
25.401535 10.928568 -36.920837 1.000000 1.000000 0.972549 0.0
25.871796 11.002947 -37.172119 1.000000 0.913725 0.839216 0.0
26.352001 11.079819 -37.431820 0.792157 0.627451 0.537255 0.0
26.839630 11.158049 -37.696110 1.000000 0.886275 0.850980 0.0
27.327204 11.234516 -37.954449 1.000000 0.850980 0.835294 0.0
27.816780 11.310119 -38.209862 0.941176 0.780392 0.698039 0.0
28.316147 11.388016 -38.473026 0.847059 0.737255 0.650980 0.0
28.815529 11.464242 -38.730549 1.000000 0.847059 0.803922 0.0
29.320553 11.541068 -38.990097 0.913725 0.827451 0.678431 0.0
29.832460 11.618959 -39.253239 1.000000 0.839216 0.784314 0.0
30.354359 11.699076 -39.523907 0.952941 0.937255 0.878431 0.0
30.885841 11.781198 -39.801342 0.984314 0.921569 0.701961 0.0
31.419548 11.862482 -40.075954 0.862745 0.815686 0.694118 0.0
31.940186 11.937242 -40.328518 0.988235 0.858824 0.862745 0.0
32.471539 12.014469 -40.589420 0.925490 0.717647 0.713725 0.0
33.006672 12.091554 -40.849842 0.964706 0.956863 0.784314 0.0
33.536922 12.165355 -41.099171 0.913725 0.784314 0.768627 0.0
34.083618 12.243629 -41.363613 0.933333 0.917647 0.803922 0.0
34.633823 12.321650 -41.627193 0.972549 0.921569 0.768627 0.0
35.189812 12.400220 -41.892635 0.968627 0.949020 0.823529 0.0
35.755402 12.480659 -42.164391 0.839216 0.717647 0.611765 0.0
36.329788 12.562636 -42.441341 0.980392 0.905882 0.847059 0.0
36.907318 12.644173 -42.716801 0.737255 0.705882 0.588235 0.0
37.481197 12.722977 -42.983028 0.870588 0.686275 0.654902 0.0
38.065884 12.803979 -43.256683 0.988235 0.764706 0.831373 0.0
38.662975 12.887658 -43.539387 0.850980 0.729412 0.678431 0.0
39.268452 12.972613 -43.826397 0.905882 0.823529 0.713725 0.0
39.890957 13.061642 -44.127167 0.980392 0.921569 0.803922 0.0
40.519833 13.151174 -44.429642 0.996078 0.850980 0.803922 0.0
41.159096 13.242492 -44.738148 0.956863 0.760784 0.792157 0.0
41.794949 13.331148 -45.037663 0.705882 0.709804 0.501961 1.0
42.428799 13.417653 -45.329910 0.996078 0.952941 0.949020 1.0
43.063019 13.502811 -45.617607 0.631373 0.541176 0.450980 1.0
43.691792 13.584844 -45.894741 0.584314 0.427451 0.380392 1.0
44.351364 13.675004 -46.199337 0.756863 0.658824 0.556863 1.0
45.006344 13.762271 -46.494156 0.866667 0.717647 0.737255 1.0
45.680000 13.853770 -46.803280 0.529412 0.337255 0.321569 1.0
46.355503 13.944339 -47.109253 0.768627 0.647059 0.560784 1.0
47.026096 14.031981 -47.405342 0.525490 0.376471 0.360784 1.0
47.718231 14.124597 -47.718231 0.839216 0.725490 0.749020 1.0
48.392910 14.210616 -48.008839 0.984314 0.972549 0.972549 1.0
48.938911 14.257793 -48.168221 0.839216 0.713725 0.635294 1.0
-7.751730 2.180174 -7.570049 1.000000 0.996078 0.952941 0.0
-7.774487 2.203791 -7.652053 1.000000 1.000000 0.949020 0.0
-7.821824 2.234807 -7.759746 1.000000 1.000000 0.941176 0.0
-7.867778 2.265920 -7.867778 1.000000 1.000000 1.000000 0.0
-7.904590 2.294881 -7.968337 1.000000 0.862745 0.745098 0.0
-7.933170 2.321903 -8.062165 1.000000 0.972549 0.894118 0.0
-7.952752 2.346714 -8.148312 1.000000 1.000000 0.960784 0.0
-7.965736 2.369971 -8.229066 1.000000 0.847059 0.745098 0.0
-7.970152 2.391046 -8.302242 1.000000 1.000000 0.941176 0.0
-7.983180 2.415080 -8.385694 1.000000 0.984314 0.901961 0.0
-7.988006 2.437019 -8.461871 1.000000 1.000000 0.956863 0.0
-7.998372 2.461038 -8.545269 1.000000 1.000000 0.964706 0.0
-8.002994 2.483688 -8.623916 1.000000 0.941176 0.788235 0.0
-8.002959 2.505274 -8.698869 1.000000 1.000000 0.952941 0.0
-7.997538 2.525538 -8.769230 1.000000 1.000000 0.980392 0.0
-7.975276 2.540796 -8.822207 1.000000 0.996078 0.996078 0.0
-7.958026 2.557937 -8.881725 1.000000 0.980392 0.929412 0.0
-7.961563 2.582129 -8.965724 1.000000 0.980392 0.937255 0.0
-7.904571 2.586951 -8.982467 1.000000 0.913725 0.788235 0.0
-7.883660 2.603778 -9.040895 1.000000 1.000000 0.972549 0.0
-7.860583 2.620195 -9.097898 1.000000 0.984314 0.980392 0.0
-7.774905 2.615856 -9.082833 1.000000 0.988235 0.878431 0.0
-7.649652 2.597995 -9.020816 1.000000 0.729412 0.525490 0.0
-9.973437 3.419464 -11.873139 0.709804 0.160784 0.203922 0.0
-10.367174 3.588637 -12.460546 0.996078 0.894118 0.725490 0.0
-10.404346 3.636471 -12.626634 0.643137 0.070588 0.101961 0.0
-10.370434 3.660153 -12.708864 0.435294 0.000000 0.015686 0.0
-10.319288 3.678162 -12.771396 0.478431 0.015686 0.011765 0.0
-10.276541 3.699555 -12.845676 0.513725 0.003922 0.023529 0.0
-10.235429 3.721974 -12.923521 0.694118 0.019608 0.141176 0.0
-10.188151 3.742586 -12.995090 0.564706 0.039216 0.086275 0.0
-10.141299 3.763781 -13.068684 0.435294 0.007843 0.050980 0.0
-10.097035 3.786388 -13.147181 0.560784 0.000000 0.101961 0.0
-10.041540 3.805215 -13.212553 0.407843 0.000000 0.000000 0.0
-9.982335 3.823022 -13.274382 0.482353 0.000000 0.000000 0.0
-9.920662 3.840256 -13.334224 0.682353 0.000000 0.000000 0.0
-9.856688 3.856965 -13.392239 0.533333 0.000000 0.000000 0.0
-9.795038 3.874960 -13.454722 0.541176 0.050980 0.050980 0.0
-9.732049 3.892820 -13.516735 0.858824 0.007843 0.011765 0.0
-9.666676 3.910116 -13.576792 0.929412 0.113725 0.388235 0.0
-9.598172 3.926525 -13.633767 0.541176 0.027451 0.094118 0.0
-9.524436 3.941146 -13.684534 0.619608 0.015686 0.184314 0.0
-9.435996 3.949952 -13.715111 0.407843 0.000000 0.000000 0.0
-9.350130 3.960055 -13.750191 0.658824 0.000000 0.192157 0.0
-9.265330 3.970856 -13.787694 0.423529 0.000000 0.015686 0.0
-9.169548 3.977153 -13.809560 0.494118 0.000000 0.000000 0.0
-9.067744 3.980961 -13.822781 0.431373 0.000000 0.000000 0.0
-8.963814 3.983917 -13.833046 0.537255 0.000000 0.000000 0.0
-8.862316 3.988042 -13.847369 0.474510 0.000000 0.000000 0.0
-8.754337 3.989318 -13.851799 0.360784 0.000000 0.000000 0.0
-8.644994 3.989997 -13.854157 0.290196 0.000000 0.000000 0.0
-8.532736 3.989331 -13.851844 0.400000 0.000000 0.000000 0.0
-8.415144 3.986121 -13.840696 0.270588 0.000000 0.000000 0.0
-8.291903 3.980114 -13.819839 0.372549 0.047059 0.054902 0.0
-8.167304 3.973283 -13.796122 0.992157 0.254902 0.447059 0.0
-8.042267 3.966049 -13.771005 0.545098 0.000000 0.000000 0.0
-7.917363 3.958682 -13.745422 0.717647 0.007843 0.019608 0.0
-7.800942 3.955407 -13.734054 0.909804 0.000000 0.000000 0.0
-7.677006 3.948174 -13.708939 0.650980 0.000000 0.000000 0.0
-7.564741 3.946821 -13.704242 0.600000 0.000000 0.000000 0.0
-7.455583 3.947073 -13.705115 0.313725 0.000000 0.000000 0.0
-7.340632 3.944220 -13.695209 0.403922 0.000000 0.000000 0.0
-7.222027 3.939288 -13.678082 0.356863 0.000000 0.000000 0.0
-7.093441 3.928675 -13.641232 0.356863 0.000000 0.000000 0.0
-6.963681 3.917071 -13.600940 0.301961 0.003922 0.003922 0.0
-6.955350 3.974486 -13.800298 0.411765 0.023529 0.019608 0.0
-7.142917 4.147500 -14.401042 0.921569 0.913725 0.929412 0.0
-7.114922 4.198970 -14.579757 0.952941 0.713725 0.690196 0.0
-7.044370 4.226622 -14.675771 0.827451 0.486275 0.462745 0.0
-6.957779 4.245424 -14.741057 0.925490 0.247059 0.188235 0.0
-6.858135 4.256773 -14.780464 0.980392 0.921569 0.909804 0.0
-6.745867 4.260548 -14.793569 0.403922 0.137255 0.133333 0.0
-6.623242 4.257799 -14.784023 0.874510 0.329412 0.317647 0.0
-6.494818 4.251154 -14.760951 1.000000 0.984314 0.937255 0.0
-6.358791 4.239194 -14.719424 0.427451 0.211765 0.278431 0.0
-6.218631 4.223976 -14.666583 0.419608 0.160784 0.000000 0.0
-6.076164 4.206575 -14.606164 1.000000 1.000000 1.000000 0.0
-5.932214 4.187445 -14.539741 0.843137 0.694118 0.639216 0.0
-5.788390 4.167641 -14.470974 0.639216 0.364706 0.384314 0.0
-5.641266 4.144604 -14.390985 0.737255 0.400000 0.780392 0.0
-5.493989 4.120491 -14.307261 0.949020 0.913725 0.937255 0.0
-5.348557 4.096767 -14.224885 0.874510 0.807843 0.827451 0.0
-5.200010 4.069573 -14.130463 0.839216 0.654902 0.388235 0.0
-5.038156 4.030525 -13.994879 0.690196 0.176471 0.192157 0.0
-4.864263 3.979852 -13.818930 0.223529 0.015686 0.015686 0.0
-4.689899 3.926427 -13.633427 0.207843 0.011765 0.011765 0.0
-4.514941 3.869950 -13.437325 0.254902 0.000000 0.000000 0.0
-4.348721 3.818390 -13.258297 0.215686 0.000000 0.000000 0.0
-4.195414 3.775872 -13.110667 0.164706 0.000000 0.000000 0.0
-4.045239 3.734067 -12.965511 0.188235 0.000000 0.000000 0.0
-3.890405 3.685647 -12.797386 0.270588 0.007843 0.007843 0.0
-3.721076 3.620506 -12.571201 0.431373 0.000000 0.000000 0.0
-3.546977 3.546977 -12.315891 0.376471 0.003922 0.003922 0.0
-3.396419 3.493459 -12.130066 0.231373 0.000000 0.000000 0.0
-3.264078 3.456082 -12.000285 0.223529 0.000000 0.000000 0.0
-3.145539 3.431497 -11.914919 0.113725 0.000000 0.000000 0.0
-3.034452 3.413759 -11.853329 0.090196 0.000000 0.000000 0.0
-2.925986 3.397920 -11.798332 0.149020 0.007843 0.007843 0.0
-2.817146 3.380575 -11.738109 0.282353 0.000000 0.000000 0.0
-2.710530 3.364796 -11.683318 0.219608 0.000000 0.000000 0.0
-2.606010 3.350585 -11.633974 0.192157 0.000000 0.000000 0.0
-2.503491 3.337988 -11.590236 0.203922 0.000000 0.000000 0.0
-2.403497 3.327919 -11.555273 0.121569 0.000000 0.000000 0.0
-2.304369 3.318292 -11.521847 0.231373 0.007843 0.007843 0.0
-2.207807 3.311711 -11.498996 0.211765 0.000000 0.000000 0.0
-2.110788 3.303842 -11.471674 0.223529 0.000000 0.000000 0.0
-2.003446 3.278366 -11.383214 0.592157 0.000000 0.000000 0.0
-1.898063 3.253823 -11.297996 1.000000 0.066667 0.000000 0.0
-1.811608 3.260895 -11.322553 0.219608 0.011765 0.000000 0.0
-0.313053 0.593154 -2.059562 0.941176 0.690196 0.160784 0.0
-0.027256 0.054512 -0.189279 0.847059 0.674510 0.235294 0.0
-0.026324 0.055745 -0.193559 0.854902 0.713725 0.262745 0.0
-0.042884 0.096490 -0.335034 0.854902 0.725490 0.278431 0.0
-0.053293 0.127904 -0.444111 0.854902 0.733333 0.290196 0.0
-0.053473 0.137502 -0.477436 0.858824 0.741176 0.301961 0.0
-0.058246 0.161296 -0.560055 0.866667 0.752941 0.317647 0.0
-0.061073 0.183219 -0.636177 0.431373 0.317647 0.141176 0.0
-0.060738 0.198780 -0.690208 0.121569 0.000000 0.003922 0.0
-0.059858 0.215490 -0.748228 0.125490 0.007843 0.007843 0.0
-0.057615 0.230461 -0.800211 0.125490 0.007843 0.007843 0.0
-0.055139 0.248125 -0.861544 0.125490 0.003922 0.003922 0.0
-0.051936 0.267100 -0.927429 0.121569 0.003922 0.003922 0.0
-0.047525 0.285151 -0.990109 0.117647 0.003922 0.003922 0.0
-0.041957 0.302093 -1.048933 0.094118 0.000000 0.000000 0.0
-0.035729 0.321563 -1.116539 0.109804 0.000000 0.000000 0.0
-0.028607 0.343285 -1.191961 0.129412 0.000000 0.000000 0.0
-0.020263 0.364738 -1.266452 0.149020 0.000000 0.000000 0.0
-0.010702 0.385285 -1.337794 0.172549 0.003922 0.003922 0.0
0.000000 0.215424 -0.747998 0.333333 0.000000 0.000000 0.0
0.085381 3.073706 -10.672590 0.945098 0.905882 0.901961 0.0
0.182676 3.288175 -11.417273 0.992157 0.988235 0.984314 0.0
0.281521 3.378257 -11.730061 1.000000 0.996078 0.905882 0.0
0.384978 3.464806 -12.030578 1.000000 0.937255 0.941176 0.0
0.494025 3.556978 -12.350620 1.000000 1.000000 1.000000 0.0
0.608496 3.650979 -12.677010 1.000000 1.000000 0.925490 0.0
0.728372 3.745911 -13.006636 1.000000 1.000000 0.949020 0.0
0.853877 3.842447 -13.341828 1.000000 0.913725 0.752941 0.0
0.985180 3.940720 -13.683055 1.000000 0.976471 0.882353 0.0
1.121616 4.037817 -14.020197 1.000000 0.937255 0.811765 0.0
1.263163 4.133990 -14.354131 1.000000 0.960784 0.929412 0.0
1.409948 4.229845 -14.686963 1.000000 0.913725 0.745098 0.0
1.561216 4.323367 -15.011691 1.000000 0.956863 0.831373 0.0
1.717151 4.415532 -15.331709 1.000000 0.937255 0.858824 0.0
1.878257 4.507816 -15.652141 1.000000 0.972549 0.874510 0.0
2.044030 4.599067 -15.968982 1.000000 0.749020 0.647059 0.0
2.214863 4.690299 -16.285759 1.000000 0.874510 0.784314 0.0
2.391586 4.783171 -16.608234 1.000000 0.952941 0.843137 0.0
2.572749 4.874682 -16.925982 1.000000 0.968627 0.929412 0.0
2.757619 4.963714 -17.235119 1.000000 0.917647 0.780392 0.0
2.946649 5.051399 -17.539579 1.000000 0.894118 0.768627 0.0
3.141913 5.141313 -17.851780 1.000000 1.000000 1.000000 0.0
3.343795 5.233766 -18.172798 1.000000 1.000000 1.000000 0.0
3.549400 5.324100 -18.486458 1.000000 1.000000 0.882353 0.0
3.760262 5.414776 -18.801308 1.000000 0.952941 0.792157 0.0
3.976234 5.505555 -19.116510 1.000000 0.960784 0.858824 0.0
4.197810 5.597079 -19.434303 1.000000 1.000000 1.000000 0.0
4.426042 5.690625 -19.759115 1.000000 1.000000 0.960784 0.0
4.660057 5.784898 -20.086452 1.000000 0.866667 0.835294 0.0
4.899134 5.878961 -20.413059 1.000000 0.984314 0.898039 0.0
5.143853 5.973507 -20.741343 1.000000 1.000000 0.968627 0.0
5.394863 6.069221 -21.073683 0.952941 0.850980 0.678431 0.0
5.650354 6.164023 -21.402859 0.968627 0.768627 0.686275 0.0
5.910364 6.258033 -21.729280 1.000000 1.000000 0.850980 0.0
6.173783 6.350177 -22.049225 0.945098 0.823529 0.678431 0.0
6.443200 6.443200 -22.372223 0.992157 0.760784 0.654902 0.0
6.717080 6.535537 -22.692837 0.913725 0.886275 0.670588 0.0
6.994401 6.626275 -23.007896 0.462745 0.411765 0.290196 0.0
7.276856 6.717098 -23.323256 0.913725 0.843137 0.682353 0.0
7.564366 6.807929 -23.638643 0.866667 0.792157 0.596078 0.0
7.857348 6.899135 -23.955330 0.905882 0.698039 0.670588 0.0
8.154429 6.989511 -24.269135 0.745098 0.603922 0.478431 0.0
8.456796 7.080108 -24.583708 0.925490 0.725490 0.690196 0.0
8.764385 7.170860 -24.898821 0.682353 0.513725 0.407843 0.0
9.077392 7.261914 -25.214977 0.725490 0.552941 0.482353 0.0
9.396534 7.353809 -25.534060 0.984314 0.905882 0.776471 0.0
9.721473 7.446234 -25.854980 0.741176 0.635294 0.545098 0.0
10.052495 7.539371 -26.178373 0.725490 0.525490 0.482353 0.0
10.390532 7.633859 -26.506456 0.745098 0.588235 0.478431 0.0
10.732416 7.727339 -26.831039 0.890196 0.662745 0.619608 0.0
11.076530 7.818727 -27.148357 0.968627 0.768627 0.745098 0.0
11.425017 7.909627 -27.463984 1.000000 0.886275 0.866667 0.0
11.776763 7.999310 -27.775383 0.894118 0.674510 0.682353 0.0
12.133313 8.088876 -28.086374 0.878431 0.686275 0.650980 0.0
12.504263 8.184608 -28.418779 0.560784 0.470588 0.337255 0.0
12.877022 8.278085 -28.743351 0.992157 0.960784 0.921569 0.0
13.247756 8.367003 -29.052095 0.917647 0.882353 0.850980 0.0
13.625666 8.457310 -29.365660 0.541176 0.439216 0.219608 0.0
